# 3D point list with one line of data per point:
#   POINT3D_ID, X, Y, Z, R, G, B, ERROR, TRACK[] as (IMAGE_ID, POINT2D_IDX)
# Number of points: 397, mean track length: 4.7749003984063743
7049 -5.5491505694824657 0.2472340017298037 8.7894843479431337 130 122 134 0.42878623467107452 2 8006 9 7304 1 8916
7048 -0.87215068769031712 0.42409084633119559 10.99240741801243 165 169 154 0.34341337049859388 8 7831 9 7280 1 8860 7 9079 11 9804
7047 -1.4153631186523239 0.16302678780884444 11.046370492526155 83 109 143 0.27340588624466838 4 7818 9 7208 1 7779
7046 -5.3343320311882447 -0.070847718990781405 10.453907413316246 126 125 112 0.56673904534646147 8 7725 9 7202 1 8827 7 9056 11 9874
7045 1.7692830779699031 0.27599067367304836 9.9223730343892669 110 101 104 0.93725240066808291 2 5621 8 6337 9 7197 1 8737
7043 -6.83844606774207 -0.32756261858703339 8.7143336408195289 253 253 253 0.53604700468796795 2 6798 3 6938 9 7140 7 8056 8 7668
7042 -3.0941789724773519 -0.16843146318091762 10.467590968811361 181 178 162 1.072995909431228 6 7449 9 7129 10 8443 5 7989
7041 1.4697077184058092 0.045215771269588756 9.993680895520118 58 81 131 0.92111959185582981 3 3894 8 7694 9 7108 1 6429 7 8884
7040 -1.5274954333389903 -0.22714399816782666 10.974363438342207 166 165 148 0.58589915102018997 8 6223 9 7081 1 7656
7039 -1.6935862246667943 -0.27573211499273592 11.012101826804264 126 113 104 0.25762839435670393 8 6200 9 7073 7 7937
7038 -5.0843697485790189 -0.50701379834735916 10.464893282134785 166 167 156 0.44913648440033188 8 7582 9 7065 1 7676 7 7985
7037 -5.3962767274861774 -0.53892080813287235 9.5506260501013767 172 173 165 0.90472314442367885 8 6156 9 7056 1 7672
7036 1.8572877069536524 -0.11475834421460636 10.018246388763034 115 107 104 0.32965767633978493 5 5523 9 7035 1 8592
7035 -2.7721798647937002 -0.45653749608666438 10.504516639513412 155 138 121 0.75690622972192612 8 7566 9 7031 1 7619 7 7927 11 8037
7034 -3.5962377403450501 -0.91644466737353136 10.890144020297788 175 172 163 0.10228182786898217 8 7480 9 6964 1 7561
7032 -5.4657199713899791 -1.1052295425599055 9.8952606188109975 158 161 154 0.71799165044090263 8 7447 9 6946 1 8580 11 10660
7031 -5.4961823922449344 -1.2555170933387914 9.9856816818852412 151 152 152 1.3551157214746439 8 7413 9 6919 1 7547 11 9612
7030 -5.9125798671533731 -1.2788268034183663 9.0592325948439036 142 143 147 0.61318320166366558 8 7406 9 6904 1 7544
7029 -0.44124168504587491 -0.9073883862482186 11.309872183606833 151 150 145 1.3185865067481315 8 7445 9 6902 1 8527 7 8814
7028 0.12355434877556171 -0.96908867732119597 11.407523821647366 152 153 138 0.49519812027951821 8 7428 9 6875 1 7486
7027 -0.24898020622568873 -1.0936236882281487 11.867970224752296 54 70 97 0.77573656059741991 2 5240 9 6864 1 7480
7026 1.5956388904632828 -1.0118910232364011 10.140818338525284 148 146 128 0.30399770162100709 8 5944 9 6844 1 7431
7025 -6.19408066259754 -2.1040123246024431 11.338407628471453 186 172 198 1.472576832455768 8 5910 9 6835
7024 -5.7077615351893076 -2.1673594958308784 11.68074990971399 189 198 203 0.6200444476954089 8 5903 9 6827 1 7462 7 7762
7023 -6.0819267345987127 -2.1993425704329197 9.9760877220338546 114 145 182 0.39881342863223807 8 5880 9 6809 1 7443
7022 -0.44253186216450857 -1.9735279490562614 12.649278966148112 68 94 127 0.19003630554017334 8 7354 9 6794 1 8443
7021 -0.44253186216450857 -1.9735279490562614 12.649278966148112 68 94 127 0.19003630554017334 8 7353 9 6793 1 8442
7020 -3.2814529580719647 -2.348343201182101 12.02029043759846 201 201 201 0.2531222178317627 8 7334 9 6779 1 8449 7 8718
7018 -1.4983261539887049 2.4392070538989783 10.507727588450141 34 43 59 0.62028038114078243 8 5278 9 6694 1 7240
7017 -5.4261618098630215 2.1559939300646369 9.0753166723432539 93 104 128 0.82447849857229516 8 8345 9 6664 1 7202 7 7343 11 6930
7016 -5.4261618098630215 2.1559939300646369 9.0753166723432539 93 104 128 0.82447849857229516 8 8344 9 6663 1 7201 7 7342 11 6929
7015 -1.3607601086786911 2.2274888303221521 10.53345778568308 100 117 127 0.62300352830080552 8 5210 9 6661 1 7195
7014 -0.27028332525069254 2.1352583909250731 10.269927538807611 108 125 137 0.59434425535206648 8 5205 9 6659 1 7192
7013 1.4858567930991673 1.8968445531426144 9.4889213248738589 80 92 106 1.4233970588612941 3 4795 9 6645 11 10240
7012 1.6752022338686614 1.8855252451317261 9.5594667735017271 124 127 114 0.33946826944937042 3 4788 1 8330 7 8538 11 10235
7011 1.531203622461196 1.8834630818950691 9.5254693936361026 124 133 126 1.5682149118776678 4 2305 9 6634 7 8537 10 3012
7010 -1.8252684148150267 2.010091120135074 10.179829042379998 124 151 164 0.57438328637642944 8 6945 9 6612 1 7157 7 7315 11 6747
7009 -5.4991471237044705 2.0432929234253163 9.9540715963262016 79 86 100 0.53484517005647414 5 6338 8 6937 9 6595 1 8320
7008 1.8192193017957319 1.7768948462492569 9.6221575145731624 60 69 63 0.93831893465638849 2 4593 5 2132 1 8302 7 9441 11 10192
7007 -1.9487557260075286 1.9189783772402687 10.162292441191513 124 148 152 0.72766911485483832 8 6921 9 6583 1 5471
7006 -1.9593491523693207 1.9254117020150618 10.197523052403326 124 148 152 0.93756282991595197 8 6920 9 6582 1 8307 7 8510 11 8865
7005 -1.0724504937608981 1.9320117502171936 10.650961173615723 120 135 140 0.56828667937543165 3 4715 6 5111 9 6573
7004 -4.0912039409053289 1.8978121087794808 10.213776669736419 73 86 87 0.57219058112383481 4 8431 9 6568 10 9168
7003 -0.91992461012180082 1.8182208974471499 10.707832390804542 131 140 137 0.72375050809953723 2 6147 9 6545 1 8272 11 8785
7002 1.1991221795636453 1.602080900932249 9.5620932984694491 135 127 117 0.33467167582080209 3 2071 9 6539 11 8728
7001 -0.91829842116239302 1.6904163946544182 10.733966637689347 88 84 84 0.34035010907024577 6 4973 9 6511 1 7027 2 4455 7 7209
6999 1.8415420040095682 1.4347835418815569 9.6869101484461186 150 157 125 1.6856675995949288 5 1912 9 6483 7 7146 11 8592
6998 -0.62514806170874815 1.5290989967433444 10.837100662425778 104 143 166 0.47650626680836033 8 4911 9 6465
6997 -0.91520928469140816 1.4188175709889357 10.784333634517836 106 94 98 0.46340858624133091 8 6765 9 6443 1 8157
6996 -0.91937939233516786 1.334434436050183 10.804936056215517 138 148 139 0.47296931637824569 8 4837 9 6411 11 8602 6 4824
6995 -0.63582718338161093 1.319740908037915 10.920798128132043 102 142 160 1.635123329623358 2 4270 9 6398 7 8341
6994 -0.33142353887295184 1.3087786650904127 10.896768807704706 141 152 148 0.61165643347738397 4 4777 9 6393 1 6901 7 7077 10 5529
6993 -0.36565253390299712 1.2620075216630151 10.901509051146272 147 150 144 0.4716279734387796 8 6710 9 6380 11 10031
6992 -5.3270933106174301 1.1413409689131755 10.18981439953947 107 111 110 1.3808010929594254 8 4789 9 6374
6991 -0.55828548924509125 1.0725963768011213 10.89973599522332 145 149 127 0.51242015930648188 8 4742 9 6334 1 6846
6990 -1.6550119334446705 1.0417011717703137 10.745948886404831 98 93 90 0.67265403171364613 8 4735 9 6332 7 7022
6989 -2.8026458090606687 0.97596826570605066 10.281891007038229 151 147 121 0.88625330339206854 8 4733 9 6329 1 6862 11 8566
6988 -5.5531369331562974 0.92221101008556161 10.082707495343335 123 133 124 0.65953273455724815 2 4137 9 6317 7 8301 11 8640
6987 -0.5716699390537674 1.0426999071197609 10.891354912915924 117 111 97 0.5482411665398943 3 4291 9 6311 7 8266
6986 -3.0630941479502543 0.93081998267158239 10.239250051514464 162 166 159 0.6350157537392862 3 5994 9 6310 1 6850 11 8562
6985 -5.472346312812288 0.82045765094703049 9.5989545798978639 148 148 144 0.70295542009897616 8 6617 9 6299 1 6855 7 8290 11 8626
6984 -1.9727750321872142 0.90224911861890322 10.383075460830248 153 155 142 0.37674226855153936 8 6619 9 6290 1 6812
6983 -2.9118295504461971 0.86594519109767654 10.184992101528008 172 175 175 0.13296069263340907 8 4683 9 6287 1 6824
6982 -5.1420349337328055 0.77495687497426125 10.257501834213899 154 152 150 0.40876079487728889 8 6581 9 6258 1 6814
6981 1.7059897873634604 0.87046425852182585 9.7857150231391028 154 147 126 0.61773272269945956 6 1904 9 6251 1 6768 7 8205
6980 1.2302165828978184 0.77303094408782846 9.6871805698666726 162 161 140 0.42485802942190204 4 1555 9 6215 1 6747
6978 -2.78745194267412 0.6743209277824922 10.266569655632358 157 157 148 1.2885142803365033 2 5794 9 6198 1 7995
6977 -5.5439766025789217 0.62002049536519666 10.238074858815878 165 178 173 0.5576695448831549 8 6525 9 6193 1 6785 7 6955 11 6290
6976 -5.3704022502882447 0.51141505042571622 8.7787830783380407 183 180 169 0.385020662605287 8 6529 9 6184 1 6783
6975 -1.5667780457541867 0.71222902834360569 10.830044466716233 151 152 146 0.31796009993194141 8 4592 9 6175 1 6754 7 6915
6974 -1.6832271621502497 0.68251524111277218 10.464072314786653 99 103 121 0.33821569482041319 8 6536 9 6174 1 4849
6973 -1.6560306658352801 0.57484604950130436 10.846507736500637 106 99 106 0.41051908902892986 8 6474 9 6121 1 6714 7 6866
6972 -1.9580121658165417 0.2464343054105434 10.549201894045234 146 146 134 0.51983630041656737 2 5629 9 6031 1 6615 7 6761 11 5835
6971 1.4099361819792526 0.32322045015077416 9.9174650602960099 67 90 121 0.82949656631046531 8 4383 9 6012 1 7759 7 8975 2 5646
6970 0.89009818459505885 0.27822085545273456 9.7514691551717103 179 171 151 0.62924940161603071 8 4369 9 5996 1 7763
6969 -5.4882364830329111 -0.25935575496196361 10.417492810618409 169 171 160 0.27618470646189858 8 6244 9 5946 1 6558 7 6719
6968 -5.384480708201167 -0.27187681479618836 9.1711354999504149 173 173 171 0.78235616944883957 8 4207 9 5942 7 8037
6967 -5.4761590825386817 -0.30710504176058506 9.8324762522459146 161 164 153 0.66542824671814071 8 6232 9 5933 1 7749 7 8031 11 8304
6966 -1.6601875154567447 -0.09372309848432335 10.984529210936216 116 99 95 0.38243408885785746 8 6251 9 5925 7 7987
6965 -2.1787385816939122 -0.18005401256869463 10.601995375987 174 169 153 0.46282251975764188 8 4194 9 5902 1 4469 11 5589
6964 -5.3736694032863213 -0.52609149395163124 9.1524088110380859 165 168 173 1.6581292849034663 8 6158 9 5856 1 7671 7 7988 11 9803
6963 -1.9496458639660112 -0.34896037266669178 10.657638751762089 148 139 128 1.3656392017181898 6 7390 9 5852 10 8398
6962 -0.24248474066144365 -0.27352669981537381 11.221313696714418 152 137 116 0.35126005019869977 8 4130 9 5843 1 6385
6961 1.2991792844498513 -0.1751072358439657 9.9517423297082335 108 97 93 0.86893839283285612 8 4136 9 5830 1 8595 7 9666
6960 -6.1646147546906294 -0.78090829790121075 8.8539000391927818 153 143 144 0.20600914092717834 8 6108 9 5804 1 6421 7 4393
6959 -5.7412762627772 -0.77281978528078432 8.9211795852551408 160 151 136 0.51366133481673915 8 6098 9 5796 1 6407
6958 -5.4421739663467052 -0.7678538776419892 8.9595288578351493 162 153 140 0.53973159135445381 8 6092 9 5788 1 6396 7 6583
6957 -1.4177129215518636 -0.59713016163136334 11.214642568782327 95 125 175 0.23177354005837722 8 6114 9 5768 1 6335
6956 -2.1357892905926068 -0.63615710436433193 10.723985602515013 93 98 109 0.73232996293642094 8 6102 9 5767 1 6344 7 6488 11 5260
6955 -4.9895077788917899 -0.88148197501570702 10.664411907663748 173 176 163 0.89939965987036619 8 3998 9 5757 1 6362
6954 -5.2195804782007746 -0.95573488978778198 10.655025038102581 162 161 143 0.82694725044475459 8 6054 9 5742 1 4253 7 6530 11 5520
6953 -5.2195804782007746 -0.95573488978778198 10.655025038102581 162 161 143 0.82694725044475459 8 6053 9 5741 1 4252 7 6529 11 5519
6952 -4.6070464082786327 -1.0410549821657371 10.718479055053098 171 174 165 0.41656659770569782 8 6024 9 5712 1 4173 7 6482
6951 -5.5098235105656794 -1.0973581723833097 10.030804854351214 161 164 155 0.55361310204159464 8 6013 9 5708 1 4181 11 5487
6950 -1.5255154368299928 -0.81818038728933296 11.162026481807803 166 164 152 0.27716523413668009 8 3964 9 5703 1 4118
6949 -0.76573472458212821 -0.7876823115847158 11.242036918560849 150 150 137 0.26965813017929879 8 6039 9 5693 1 6261
6948 -0.2147333853764819 -1.0533086431608258 11.83570083367753 118 146 166 0.47825012837941533 8 5965 9 5610 1 6187
6947 1.6749801253904946 -0.95815195743427517 10.189128844274972 77 90 109 1.4751032666385748 3 449 9 5572 1 7438
6946 -5.7240038193851763 -1.9203782149855775 11.678835341718662 183 193 194 1.2101167700140536 8 3824 9 5571 1 6185 7 7792 11 7763
6945 -6.2403830182423627 -2.1427483864042962 11.345017539155297 196 196 196 0.5909520102210104 8 5904 9 5554 1 6167 7 6310 11 7747
6944 -6.5794042898593954 -2.4050901283416466 11.323645982199688 206 219 224 0.58903825874014648 8 5881 9 5532 1 3887 7 3946 11 713
6943 -2.3663319906395293 -2.0722090090555652 12.034058029097972 111 123 154 0.50704076914262863 8 5888 9 5519 1 6107 7 6182
6942 -2.5693726057819726 -2.1143739149458134 12.037476085309629 101 115 151 0.26579771440762562 8 5885 9 5516 1 6106 7 6184
6941 -1.9100644051812337 -2.1060309007027178 12.229219246300909 119 127 138 0.37369659081663587 8 3765 9 5513 1 6094
6940 1.1094205085165783 -1.5469284164066068 10.619926003559016 144 164 190 0.82444992677422968 2 3251 9 5506 7 6063
6939 -1.8931576002815915 -2.4097681563865891 12.340420044816911 170 177 184 0.43550604132615223 8 3725 9 5489 1 8437
6938 -2.7880240090962296 -2.8588615865975209 12.49275283271467 93 97 134 0.57658796483543007 8 5854 9 5469 1 3741
6937 1.2994364293896732 -2.153802097074748 11.07706975930313 97 83 185 0.26718210872951481 8 5857 9 5465 1 7377
6936 0.13827383846593855 2.5039090991522102 10.655812537726346 54 67 81 0.24232456291249785 2 2343 3 2585 9 5394
6935 -1.5372537974649485 2.2369606586864852 9.3201182666689544 59 73 88 0.52400135149720095 2 2354 9 5378 1 7263 7 7416
6934 -1.6424933174979366 2.2032242111596063 9.313921983045331 52 66 79 0.37539409332443713 8 2627 9 5363 1 5787
6933 -1.6324283494795748 2.201862903877188 9.4600683553185103 49 60 70 0.50343797808904589 8 5270 9 5327 1 7237 7 7389 11 8963
6932 -1.7139957824675147 2.189474332872908 9.3990655400503389 50 61 79 0.54891142448346097 2 2289 9 5322
6931 -2.6548785067203413 2.1056143420377853 8.8414662842785905 62 80 99 0.43739144599280544 8 2582 9 5315 1 5737
6930 -2.1172055359832638 2.0904805249513836 8.9366059457853844 55 66 92 1.1001697199855469 2 2279 9 5304 7 7376
6929 -1.7569343967524249 2.1576511451524625 9.415953282623077 71 72 90 0.62450115410180596 2 2250 9 5286 1 5713
6928 -0.87740985216970446 2.2198996893296608 10.152710193428282 96 117 124 0.93393455847524709 3 2421 9 5243 1 5658 11 3545
6927 1.5073220945972121 2.0151262196388124 9.4804518623515541 128 140 142 1.4947786716815845 8 2446 9 5238 7 5593
6926 -0.27946715695129576 2.0948319964555862 10.275340685003849 91 100 107 0.78159236815987732 8 2376 9 5166 1 5573 7 5517 11 6755
6925 1.6133305925987278 1.9020388275326512 9.5260210689724047 75 88 105 0.37692893757818641 8 2357 1 5548
6924 1.5607955619951039 1.8967686997986763 9.5011959549131557 78 91 108 1.30352007295095 8 2352 9 5157 1 5542
6923 0.99899947766897546 1.8723872185547641 9.4341615473356502 113 126 134 0.68622979688495567 8 2344 9 5149 1 5539
6922 -5.2709229631344767 2.1363344220887988 9.9762897184334296 106 122 139 0.37627057246514634 4 5291 6 6998 9 5111
6921 -2.2591767930707261 1.9709810632123277 9.8019295228407106 112 132 149 0.43266763722343243 8 2320 9 5108 1 5515
6920 1.6237103760807328 1.8100669856787324 9.5641135924429914 97 87 87 1.4005541914409856 8 2285 9 5084 1 5481
6919 -3.8972497867511113 1.9966051762245713 9.9433912358481464 46 57 84 0.43550950839128183 8 2291 9 5076 1 5501
6918 1.696035970086863 1.7786891269331329 9.5752313408042546 81 85 104 1.2903260684880919 8 2262 9 5053 1 5451 7 7289 11 6618
6917 1.1495890779683191 1.6952315643245257 9.5260462980013099 159 163 130 0.25289599253515765 3 2166 8 2207 9 5012
6916 -5.7954390796013264 1.6938393489888315 8.4444209284904144 101 106 129 0.53425636129005516 8 5095 9 5000 1 5441
6915 0.91953967411466353 1.6510822747418572 9.508996101738294 127 119 108 0.51515544489749299 2 1889 8 2181 9 4979 1 5372 11 6576
6914 0.9196535431209738 1.6510578550490511 9.5085754508922733 127 119 108 0.56898351141143177 8 2180 9 4978 11 6575
6913 -2.4480893528470178 1.8023108531123229 10.247699628652027 111 135 149 0.17321413744729761 8 2169 9 4962 1 5394
6912 1.9555492066835232 1.652548918773548 9.6580520916424817 120 112 97 0.77296184132264978 8 2154 1 7064 11 8724
6911 1.9550565041275711 1.6538528623117967 9.6712690249256479 120 112 97 0.77753501362258071 8 2153 1 7063 3 2096
6910 -1.0780954337586353 1.8445990818136011 10.680715550785369 92 87 94 0.40404538242945498 2 4527 8 2151 9 4954 11 6614
6909 -0.1817663452618048 1.8412829479653918 10.809041136355438 120 132 124 0.63152503918370539 3 4655 4 2164 9 4948 1 5361 7 7235 6 2517 10 2845
6908 -2.8318329880126187 1.739406319057393 10.110885382522437 124 142 146 0.25593717703146235 8 5023 9 4936
6907 -5.3378230483273414 1.5855274053514399 8.5613152190069179 99 104 113 0.50420842155321677 8 5038 9 4934 1 5386 7 5373
6906 -5.3367492699383732 1.5845486593682765 8.5602714582434576 99 104 113 0.40008189456151805 8 5037 9 4933 1 5385
6905 -5.8021096213090937 1.5915190894546349 8.4801617533558495 185 186 178 0.63002352835889264 6 8195 9 4932 1 5391 7 5371
6904 -6.2453231054234823 1.5718179045780998 8.3548145538465182 187 186 173 1.083617557108002 8 2131 9 4918 1 5380
6903 -6.3679433071941265 1.5336825079339689 8.3923125541244321 196 186 177 1.7371928816347812 2 1861 9 4899 1 2785
6902 0.86866322870317925 1.5014431615902082 9.5235165715700383 103 90 93 0.74178789230612918 4 2077 9 4886 1 7014 11 8701
6901 -4.8645767462339773 1.6675187424268059 10.142726909917512 129 140 132 0.55873060515715234 6 5026 8 4971 9 4881 1 5321 7 5330
6900 -0.18031689904819004 1.6823509465702968 10.83826206418868 132 147 142 0.57873468632133918 2 1786 3 1995 9 4876 1 5300 7 2569
6899 1.8473393590828913 1.4991776383455444 9.6715841748861138 130 125 104 1.1970756106016274 2 1778 9 4869 1 5268 7 7175 11 8637
6898 0.97597410522364791 1.4602716004183849 9.5576299154924307 99 90 89 1.0041348694071832 8 4958 9 4861 1 6999 7 7172 11 8674
6897 -5.5436460779470886 1.5212868631890319 10.019772979948023 75 72 92 0.4243772164156554 8 1973 9 4830
6896 -5.5523126424939964 1.476557668441151 10.040547736165315 72 75 92 0.27262279821804936 8 1953 9 4812 1 5265
6895 -1.0458403372785627 1.4638906400206155 10.757056534202281 93 85 96 0.47667151340187863 6 2284 9 4798 10 2590
6894 2.0399611449740784 1.3159012896995532 9.7389123519151983 94 85 80 1.515650475529239 2 1693 9 4772 1 6920 7 8344
6893 -1.7374024923896398 1.3941921883260584 10.667905238568379 78 72 82 0.30035231723751421 8 4871 9 4765 1 6950 7 7121
6892 1.0810593647316558 1.261392488091178 9.6143463307018369 107 104 99 0.62156852640624938 8 1901 9 4759 1 5162 11 8552
6891 -0.91519885459729955 1.2650018571517867 10.820853867955652 90 88 87 0.32101009916046497 6 2105 9 4699 11 6322
6890 -1.0768883535971496 1.2595802830287883 10.790209006023119 101 95 100 0.25800773983747033 4 1826 9 4698 1 5134 7 5121
6889 -0.17618035332280235 1.2856167612081515 10.929634759922283 85 83 83 0.48657806578731255 3 1713 9 4695 1 5120 7 7068 2 4249
6888 -5.4962694941124317 1.1834673190737219 10.153178777977507 89 81 94 0.57047208873859212 8 4798 9 4694 1 5161
6887 1.1563501900463939 1.0311787784614461 9.6763272951609878 118 111 102 0.63012311325436865 8 1726 9 4645 1 5025 7 6994 11 6094
6886 0.87463202506734072 1.0144958082238495 9.6238630102511724 103 91 96 0.60150456598209445 2 1544 9 4643 1 6843 11 8429
6885 0.87531512357970298 1.0142956973583042 9.6185285519600079 103 91 96 0.66127051831034833 2 1543 9 4642 1 6842
6884 -5.465936903003314 1.0069510370635129 10.189497037222623 138 144 132 0.28016014368729075 2 4177 4 4699 9 4641
6883 -5.4698736783558202 0.88948784789383062 9.5141044893205606 84 78 92 0.28843763374989223 8 1658 9 4613 1 6875
6881 -1.8368441268102553 0.98564963923619731 10.404927903077985 142 133 127 0.78579674531668997 8 1665 9 4607 1 5037 7 7015 11 6251
6880 -5.476697454615798 0.86078437216428871 9.4893343611627472 128 139 130 0.35780524765283755 8 1630 9 4597 1 5075
6879 -4.9195303690939198 0.92077347723651948 10.277645300531063 129 123 111 0.38600344675106224 6 4662 9 4589 7 5059
6878 -1.5315770034574636 0.98908722228710677 10.742290263518317 141 144 127 0.41972614358875704 8 1635 9 4575 7 5016 11 6205
6877 -0.84539196539453187 1.0101525237650606 10.846054393919434 150 151 153 0.49705837140887982 8 1643 9 4573 1 4994 7 5005 11 6161
6876 -0.84539196539453187 1.0101525237650606 10.846054393919434 150 151 153 0.49705837140887982 8 1642 9 4572 1 4993 7 5004 11 6160
6875 -5.5029936911538684 0.8233217085919875 9.8017680845054489 107 103 94 0.42452494587540346 8 4680 9 4548 1 6853 11 6390
6874 -1.7004113083214198 0.94455082143570279 10.769682026459419 93 92 96 0.74294069883835046 8 1596 9 4546 1 4978 7 4997 11 2564
6873 -5.3932996021776844 0.68312529314563553 9.23491467188604 141 143 142 0.89165430866692841 8 4641 9 4499 1 4974
6872 -0.68841760975862809 0.85838624864046875 10.87060499204204 123 125 123 0.84183437449313969 3 1483 9 4479 11 6076
6871 -0.24471417436487364 0.85755804123660795 11.004851313922098 129 118 96 0.40848869364090001 6 1814 9 4464 10 2140
6870 -5.4694817575214545 0.59725722596211517 9.8701472874820997 155 162 161 0.31454439884627783 8 1431 9 4435 1 4916 7 4943 11 2754
6869 1.1965668728598211 0.73886052836680505 9.6909079563547742 160 166 150 0.66437868676870215 8 1526 9 4421 1 4800
6868 2.0067393913309401 0.76035985063314815 9.8587811776824541 80 75 72 1.1406169592548061 8 1517 9 4404 7 6818
6867 1.02871622629501 0.69864020360988444 9.7162025686488853 138 117 107 0.61880637854303844 8 1477 9 4395 1 4768 7 6837 11 5821
6866 1.8018564890022484 0.73361376133529022 9.8302558302620806 122 108 100 0.37538277830825739 8 4612 9 4392 1 4750 2 1341
6865 -4.7220800525665609 0.56340347283418457 10.387538503114843 166 167 162 0.45752443772440671 4 1370 5 4002 9 4382
6864 -5.3845651357807824 0.46270689436661122 9.2182320827958222 153 163 162 0.41493735048891661 8 1352 9 4373 1 4873 7 4887
6863 -1.071085596930955 0.67141515895364523 10.909357699124911 159 164 158 0.27664259831272281 3 1379 9 4370 1 4802 7 4789 11 5993
6861 -4.053420760210976 0.52862082315930259 10.503800957748831 98 93 99 0.33878320947406809 6 4425 9 4356 10 5063
6860 -0.9956988849734012 0.61806297548069256 10.94277910937631 105 88 94 0.24571375585794061 5 4009 9 4334 1 6711
6859 -0.43666313415280755 0.62420214324890089 11.018596684406036 158 157 137 0.2788357683331667 8 1332 9 4326 1 4727
6858 -3.7484642036384366 0.408165285321687 9.3851588568020023 140 158 178 1.5275685338033864 6 6315 9 4316
6857 -0.63470841134137579 0.60110290676832445 11.071097953996249 106 142 176 0.72782877172805471 8 1307 9 4311 1 4720 7 6823
6856 -1.9277603260554226 0.50116588855896893 10.496359976137898 172 173 166 0.29659743521195164 3 4082 9 4306 1 4726
6855 -5.4063724597886136 0.28921762495812037 8.7365654972713802 164 176 175 0.59893501045745212 8 1249 9 4289 1 1838
6854 1.6996639387449748 0.57634382763383729 9.7903707423850967 151 157 144 0.18805594115592272 2 1230 9 4283 1 6636 7 6753
6853 -3.0679165426390966 0.41868296979799541 10.361657621962243 152 151 143 0.72953080865596109 5 3930 9 4282 1 4723 4 4395
6852 -0.17521741070949737 0.54306921334487579 11.077615448489679 154 163 145 0.40285237332509777 3 4077 9 4270 1 6658 10 1870
6851 -1.9933027863324915 0.42602866863076466 10.508273336593559 175 181 177 0.50746473045459906 8 4460 9 4253 1 6672 7 6810 11 5946
6850 -1.626206636218819 0.41384689805743485 10.876070625450225 160 164 147 0.57133853767784926 2 1121 9 4229 7 4676 11 2119
6848 0.91575807138481036 0.33685913912491317 9.7727043087235135 150 135 112 0.61766326970996088 3 1203 9 4163 1 4583 7 6693
6847 -4.1025618842480416 0.11129845798551888 10.578189515700938 125 113 119 0.21542088423701089 6 4210 9 4155 7 4651
6846 -0.63364342205827184 0.20260581661089883 11.149163362492539 127 154 181 0.34000442991080199 8 1073 9 4120 1 4572 7 6708 11 5618
6845 1.0676921917259765 0.22342416605088283 9.809747314177848 165 157 136 0.51232152973645906 8 4334 9 4106 1 6522
6844 -6.6773036675552433 -0.18658746079326299 8.6963557203419324 182 194 186 0.94988764120814662 8 4266 9 4104 1 4619
6843 -6.6506256405625859 -0.25568872603678661 8.7228593463409556 184 196 182 0.66602907018801527 2 5510 9 4093 1 4602
6842 -4.6928856040382811 -0.15235212306319729 10.54423137717791 171 174 165 0.29001093840302483 3 3835 9 4090 1 4571 7 4595
6840 -0.47184616632406362 0.065679214350694626 11.122922268331735 94 99 92 0.10685886698636043 3 3896 9 4080 7 6665
6839 -2.6890593870744866 -0.098805482288531546 10.522602479947965 143 139 131 0.31764378752249073 3 3849 4 1036 9 4067
6838 -4.9349785300958455 -0.22389018748606143 10.504180947386553 152 140 126 0.57857881734970784 2 3643 9 4064 7 4572
6837 -0.91328831968158997 0.00080732348623366312 11.079554125362256 166 173 160 0.25797587354151302 8 4252 9 4058 7 6659
6836 -0.91328831968158997 0.00080732348623366312 11.079554125362256 166 173 160 0.25797587354151302 8 4251 9 4057 7 6658
6835 -5.0027032148461457 -0.2998279544774678 10.539506227698629 163 165 160 0.91854164547950046 8 4182 9 4042 1 6532
6834 -3.9824891070044059 -0.31824521868030259 10.682729198347705 179 176 164 0.13668599222626576 8 4155 9 4018 7 4492
6833 -3.9823385247004461 -0.31836205830321468 10.682246882115384 179 176 164 0.13920004970852037 8 4156 9 4017 1 4484 7 4493
6832 -0.073017325206953032 -0.099492085835873642 11.184723577359563 151 152 134 0.49209587014702638 2 876 9 4009 1 4393 7 4363
6831 -2.3226135006169013 -0.25269023455816469 10.586238107516035 141 141 138 0.73527503241778358 8 869 9 4005 11 1537 7 1310
6830 -5.0947607590353305 -0.46657518895235855 10.467934899173031 138 123 116 0.23365699676877871 8 4122 9 3991 1 4467 7 4488
6829 -5.0254241037010381 -0.4636619548149562 10.475767309985148 139 132 121 0.22320927217822872 8 4124 9 3988 7 4487
6828 -4.2876698297568652 -0.44495172501263452 10.586726594064194 148 139 130 0.17453721215474519 8 4119 9 3984 1 4443
6825 -4.0195811361185827 -0.43952343832793106 10.633729887270638 141 133 128 0.54228529075649878 8 4116 9 3978 1 4435 7 4430 11 1700
6824 -3.8892806042478143 -0.4333638765568632 10.655031371893337 139 125 112 0.49148682023709966 8 4117 9 3977 7 6640 11 5653 1 4428
6823 -2.2429977994252051 -0.34371222441048033 10.621720054700232 177 180 171 0.83673729002981001 8 814 9 3968 1 4380 11 5488
6822 -4.4904987883245688 -0.51735813939944397 10.536791664546989 130 135 146 0.38225337532978915 5 3571 9 3960 1 4414
6821 -2.4050708838367818 -0.43095449084662585 10.58298489272404 171 159 135 0.4792618608691534 8 4099 9 3947 1 4344
6820 -0.14636333773553667 -0.34239382592301548 11.180923062838238 161 165 151 0.33371634463618893 3 831 9 3925 7 4202 1 772
6819 1.0966411880881997 -0.25959023283718807 9.9257277180058416 153 140 121 0.48688966880120288 8 775 9 3909 1 4184 7 6421
6818 -0.90603776760057642 -0.45665541696076511 11.093352041258575 122 153 173 0.11491325805612293 8 679 9 3901 1 4248 7 4200
6817 -6.0889322696792023 -0.78435586211888175 8.8623821119146786 153 146 140 0.78400953168696297 8 4024 9 3897 1 4356
6816 -0.11432207326389121 -0.4133552564844758 11.208880773786435 66 81 102 0.049253621522047597 8 692 9 3890 1 4214
6815 0.90543941706426612 -0.41210988851493507 9.9201485319585831 109 99 98 0.66711963753416348 8 4062 9 3830 1 4120 7 4058
6814 -2.6323297862666619 -0.74609020466715315 10.670907153430841 182 182 174 0.57671253188801019 8 554 9 3825 7 4178 1 4188 11 1098
6813 -3.8796017539171457 -0.8637671442821091 10.834740731749198 175 178 169 0.30385405414262023 8 3984 9 3823
6812 -5.3358877302114482 -0.97166951185118267 10.616180340144858 148 155 147 0.61725683137226106 3 3578 9 3822 1 4245 7 4287 11 1486
6811 -4.2537409044323997 -0.91046876544932598 11.006214570910288 61 83 97 0.35546504190277495 8 3975 9 3813 1 6341 7 6508
6810 1.1585410722535538 -0.46097394702599642 9.9561056222088702 170 165 129 0.60161428177437692 2 598 8 595 9 3794 1 4087
6809 -1.2032044486783151 -0.76869140566316774 11.203569187510375 143 130 118 0.66388478204589552 8 3979 9 3779 1 6285 7 6411
6808 -5.157174844919215 -1.081812745325313 10.666103789303284 117 111 114 0.32355125291414422 8 428 9 3776 1 4183 7 1021
6807 -5.1591462091871012 -1.0813633511234935 10.668590467298689 117 111 114 0.20342412507928773 8 427 9 3775 1 4182
6806 -1.4867110140012558 -0.80958587846355212 11.205260006294276 121 110 97 0.42384670958699289 8 484 9 3766 1 6283
6805 -0.5610968639032875 -0.91061836162962861 11.316588478476156 177 179 168 0.32419697989785007 8 3926 9 3691 1 6227 7 6335
6803 -5.9994430879975411 -1.395171165843339 9.0751628902085475 157 150 158 0.37003481765321783 8 3856 9 3641 1 4093
6802 -1.1004122947870103 -1.1210666663612114 11.745787030485094 67 81 108 0.2815103422617084 3 428 9 3633 1 3992
6801 1.7469572511436247 -0.73497574562085521 10.152256539886897 86 108 138 0.29601742028234318 2 452 9 3628 1 3908
6800 -2.5073398805707692 -1.3060676008059735 10.781560113180365 115 123 122 0.28689020797243603 8 3852 9 3603 1 3953
6799 1.5547218438944519 -1.009205886310595 10.163107857915403 100 93 69 0.24244245558258914 8 318 9 3578 1 6127
6798 -5.7109121029997025 -1.9945535106351682 11.660891966980671 181 201 202 0.34787042648991157 8 3818 9 3571 1 3926
6797 -6.2349645830250173 -2.03126157242039 11.399245903978759 208 212 208 0.94931379121813075 8 238 9 3570 1 6176 7 6330 11 7768
6796 -1.9004489884965556 -1.7500223953871281 12.100452676996992 153 159 155 0.28903897416836466 8 241 9 3541 1 3873
6795 1.3604321756415274 -1.1685181791468688 10.159855103256968 134 124 101 0.6272894511830408 8 3839 9 3537 1 3830
6794 1.5634542990069646 -1.155837133045641 10.173773395412629 166 159 125 0.28897088819094391 3 346 9 3534 1 3822
6793 1.5419883512646058 -1.1622198629577132 10.1784931409585 130 117 108 0.59542973338123506 8 278 9 3532 1 6097
6792 -1.4770427496788925 -1.9524043336570895 12.44203841733774 120 148 170 0.50537789094793917 8 196 9 3506 1 200
6791 -1.9150794922848504 -2.2154409144128953 12.190821181444003 156 168 176 0.088020244156713875 8 98 9 3452 1 6077
6790 0.49455151052368485 -2.2406677727843989 12.549036588048871 68 79 100 0.65589083831273687 8 3727 9 3436 1 6040
6789 -2.0231010040192219 -2.5301327754348617 12.224284875691263 93 94 159 0.55667482039237759 8 3712 9 3435 1 6057 7 6087
6788 -1.8604592597284477 -2.5277990651511733 12.248774057148241 88 103 108 0.21525079455369392 8 3710 9 3432 1 56
6787 -2.2098644118534705 2.0909597302435396 9.0921352063032153 52 74 87 0.39155054319000726 8 2527 9 3188 1 3146
6785 -1.9731861104415509 2.0946950845975887 9.277350240167479 43 62 77 0.30010759776202628 8 2509 9 3168 7 5576 1 5676
6784 -1.9731861104415502 2.0946950845975882 9.2773502401674772 43 62 77 0.30010759776200169 8 2508 9 3167 1 5675 7 5575
6783 -2.1951199404692021 2.0627821636225105 9.2651858183600542 42 60 74 0.5096768008917093 8 2472 9 3146 1 5641 4 2564 7 5553
6782 -3.9951369685916287 2.2303525475305803 9.6763178026367171 56 65 94 1.1136570343632044 6 5387 9 3139 10 6106
6781 -4.0490483263616373 2.2104966063344325 9.7090231301383643 87 103 118 0.52846057508293909 8 2451 9 3121 1 5627
6780 -3.9546784418292455 2.1888858410452476 9.7018214027996255 70 81 104 0.71758192967395285 4 2624 9 3113 1 3100 10 3322
6779 -2.6258298686832831 2.0344998691260225 9.3013302255875061 53 70 93 0.30833657214298565 2 2151 9 3105 1 3083
6778 -5.4662720568006913 2.1469509926416879 9.0748496026379719 35 54 76 0.12277221823797566 8 5230 9 3102
6777 -4.7155899776714847 2.1686993486547164 9.5898152000419845 55 78 94 0.59919552549538813 6 5369 9 3081 10 3324
6776 -0.92743480155465963 2.1089633731535655 10.170943545543427 99 112 120 0.39113937836551732 5 2318 9 3068 1 5586
6775 -0.99950820671731022 2.0875486647841868 10.165591380359954 56 73 87 0.62433338159162488 8 2378 9 3049 1 5576 11 3479
6774 -4.541978263932382 2.1818771652575015 10.0780385969005 17 40 55 0.61983279412613834 8 2379 9 3024 1 3062
6773 -3.9120119405085085 2.0245386837545483 9.9253948114471591 89 93 100 0.14713816064849264 8 2303 9 2941 1 5505
6772 -3.890349139404528 1.9960759974961009 9.7547062492315408 102 105 114 0.16488663186994246 8 2308 9 2940 7 2831
6771 -1.8505812749403494 1.9459516270156654 10.202290778684683 103 109 125 0.44048128695067679 8 5126 9 2891 1 7143 7 5453 11 6714
6770 -1.8541378747266659 1.9472291242034763 10.209576111141111 103 109 125 0.34781666916219711 8 5125 9 2890 1 7142 7 5452
6769 -6.7091605263537879 1.7629956578095232 8.2843546441373359 198 193 174 1.6158190671177965 8 2265 9 2865 10 7817
6768 -4.9010325678398425 1.9470655095089164 10.078688971204317 124 140 147 0.64318805575035431 6 5198 9 2851 10 5883 11 3448
6767 -19.759446285587028 25.902276132648641 149.83561527148561 107 100 90 2.1654811359507948 6 2560 9 2794
6766 0.93250308513101032 1.6083641850573112 9.5205952904882505 87 91 90 0.45599310775482138 8 2135 9 2758 1 5337 7 5356 11 6546
6765 -2.6158865874786073 1.751143551265586 10.236959441777836 133 156 162 0.39973606467169581 6 2550 9 2737 1 2787 7 2671
6764 -6.2530746907848673 1.5629912336321266 8.4310210758934758 109 118 135 0.76283050447234457 8 2114 9 2719 1 7076 7 7229
6763 -6.2530746907848673 1.5629912336321266 8.4310210758934758 109 118 135 0.76283050447234457 8 2113 9 2718 1 7075 7 7228
6761 -0.27344479583487613 1.7629155445904781 10.8005942709287 107 95 98 0.58447536225876051 8 2081 9 2711 1 2724
6760 -6.6212479282185743 1.5257553986123711 8.3271761758078711 177 175 150 1.8060415943158998 8 2090 9 2694 1 2777
6759 -2.5617858701942287 1.6379505700208601 10.260419946223857 142 138 92 0.65661194089340225 8 2041 9 2673 1 2698 10 2770 11 3234 1 5316
6758 -2.5657222708689353 1.6387091496283801 10.266777335582249 142 138 92 0.47616844355044885 8 2040 9 2672 1 5315 7 5327 11 3233
6757 -4.7231547369736226 1.6688918035796627 10.172680177712273 138 144 144 0.39797447202941699 3 2035 9 2668 1 2715
6756 1.0816662178355232 1.3689074521308815 9.5972309235336457 79 76 87 0.61092123181783986 8 1967 9 2567 1 5230 7 7136 11 6363
6755 -6.3943031287551753 1.2050051310076944 8.4567416513632203 126 103 117 1.0697113602249546 2 4354 9 2487 1 2584
6754 -3.9739006639489096 1.3625286062560711 10.335138023364371 157 159 159 0.26245997387300196 6 2257 9 2477 10 2519
6753 -4.8661485686357624 1.3391084280494086 10.211061753975896 141 149 136 0.58916460223235723 4 1943 8 1883 9 2460 1 2554 10 2485
6752 1.1137162714570121 1.2081054589290536 9.6265652188103399 146 143 140 0.35107958910418058 8 1864 9 2391 7 5114 11 6242
6751 -0.32788887000425038 1.3048316832152436 10.898839231663869 137 146 145 0.65413221488273254 3 1733 9 2356 11 6312
6750 1.8358166699062575 1.169638044098243 9.7368425585032394 160 163 136 1.1427909512672467 2 1606 9 2324 1 2325 7 7041 1 6878 11 2471
6749 0.85769751675919848 1.1233248814471071 9.5984267346828265 156 155 146 0.89089676531616213 2 1605 9 2320 1 2335 7 5081 11 2565 11 6194
6748 -0.64979071808099331 1.2034316073397 10.874527917063341 83 85 84 0.21194586862537843 8 1756 9 2276 1 5105
6747 -4.0510905707697216 1.0103846212401917 10.402975420602511 105 93 105 0.43211991460745364 6 1976 9 2199 1 2303
6746 -4.7151645471352968 0.99640791998487299 10.301574163462645 103 90 97 0.24105382303069767 8 1677 9 2198 7 2268
6744 1.8325288093310745 1.0002280209207435 9.7836571772557832 135 113 100 0.88126316684862926 8 1703 9 2156 1 4958 7 6954
6743 2.0547366373334146 1.0011592663428561 9.8135891784582565 139 138 108 1.4618267604813757 8 1697 9 2138 1 4952
6742 -3.0741015904920808 0.92244414279927089 10.243907692149024 166 167 159 0.526189680906469 2 1463 9 2130 11 2771
6741 -4.1994744685940342 0.91902710369305884 10.361735512538646 161 168 160 0.21225253066931035 4 1619 9 2123 10 5313
6740 -3.0886746383039498 0.91047603946979971 10.228192970563354 130 127 124 0.35162442406603323 3 1563 9 2118 1 5028 7 5027 11 6298
6739 1.9812978548577793 0.97725587163414507 9.8120573533870843 127 111 97 1.0888352824702561 8 1673 9 2114 1 4930 7 6942
6738 1.0611331497184522 0.93422996745335629 9.6786104309865042 141 124 105 0.8207939879048507 8 1666 9 2112 1 4950 11 6022
6737 -2.4002613232094232 0.91866890597983342 10.272213762701659 98 82 77 1.2723709744433396 4 1625 8 1618 9 2110
6736 -3.0262473755399162 0.87935699826253022 10.246205919916296 161 168 160 0.048598375504374812 8 1589 9 2071 10 2150
6735 -2.5314652932568915 0.88334520861292609 10.519890025285326 131 128 124 1.2942186707029135 5 1536 1 2140
6734 1.47073559213226 0.88468619133875226 9.7259478712006882 161 149 111 0.55179914656963858 2 1446 8 1603 9 2020 1 4900 7 4860 11 5910
6733 -5.467508923777495 0.6103611933335773 8.7472493158755906 169 153 135 0.31512035273588684 6 4545 9 1979 10 7212
6732 1.1213159158297299 0.81428833899560971 9.7086820094570534 95 77 72 0.54182810131431935 8 1561 9 1978 1 4866 7 4804 11 2142
6731 -4.7253093010369618 0.68850891857307506 10.316271787941574 155 162 158 0.20321439904759811 2 1322 9 1954 1 2062
6730 -2.0424466073115592 0.69775461117099535 10.283076678715023 157 156 151 0.82328225176308623 3 1427 9 1911 10 2010
6729 -2.6379622791461004 0.65938847579163928 10.195937649707512 170 164 151 0.58547389485513845 8 1447 9 1894 1 4875
6728 -4.9003259978483555 0.58204747294690562 10.341310643060092 141 138 132 1.1594609950233641 5 1341 9 1868 1 4887
6727 1.0753825684348173 0.69847185180228988 9.7216072002087586 148 128 104 0.7525327167949718 8 1469 9 1851 1 1820
6726 -5.4874026459141705 0.52459516718056287 10.275731777341999 100 89 99 0.50555250868010992 8 1346 9 1821 1 1942 7 2018
6725 1.6603475184567844 0.68860060716990512 9.8022161911702526 109 111 110 0.81943733274785813 8 1437 9 1813 1 1759 7 4689
6724 -1.8060364959638673 0.60728904041326937 10.484394352118597 136 131 128 0.69345035588644377 3 1370 8 4566 9 1810 1 6732 7 6885 11 6041
6723 -5.3388623881977448 0.37381017084363388 9.0234462614833078 173 182 192 0.38668243827117382 8 1282 9 1720 1 4823 7 4821
6722 -4.6960137173215628 0.45163114062575865 10.422472743602286 163 162 157 0.41332454071260044 3 1267 9 1707 1 1857
6721 -5.6007846275878563 0.39819214674726539 10.072034181639891 104 128 152 0.67495156494285646 8 1262 9 1696 1 1876
6720 -2.7393717213960209 0.36349251959402668 10.40806586577658 144 149 140 0.62924914435451806 8 1216 9 1611 1 1712
6719 -0.96902248843419214 0.30449449106663234 11.008964266580575 146 127 113 0.40241044783784563 3 1144 9 1469 1 1565 11 1864
6718 -4.0689697626838282 0.11511164070398075 10.583259623309301 141 130 134 0.55642651797142029 6 1256 9 1433 1 1616 10 1469
6717 -5.7989054785990142 -0.014875167770227696 8.8248235679107268 119 116 120 0.05366094808060614 2 990 9 1426
6716 1.0755801031163745 0.27756789570451568 9.8060100023570236 166 163 153 0.41430223543813721 8 1121 9 1397 1 4534 7 6668
6715 -1.8366387244524089 0.12664941024630019 10.603079655005997 159 157 144 0.53620690425462858 8 4312 9 1386 1 4589
6714 -5.5587482818908454 -0.089381370864684076 10.362936109739392 107 94 112 0.44147745773366737 8 1011 9 1350 1 4612
6713 1.1014981840699614 0.22303063709617016 9.8265096840583865 159 157 136 0.6074951010884343 8 1085 9 1338 7 4436
6712 -1.6866504171977679 0.086637906067474901 10.941829559597263 145 129 111 0.32793096848184256 8 1036 9 1328 1 1385 7 1517 11 1751
6711 -1.6866504171977679 0.086637906067474901 10.941829559597263 145 129 111 0.32793096848184256 8 1035 9 1327 1 1384 7 1516 11 1750
6710 -1.6286606520679741 0.064246560261715546 10.953603910780082 167 166 146 0.30819969879834275 8 1022 9 1316 1 4551 7 1487
6709 -3.9774882801475124 -0.11604571225929405 10.645560565514886 129 119 118 0.57713051382296077 2 909 8 974 9 1290 1 1382 7 1556
6708 1.7436121986910682 0.17690793311969394 9.932854824327416 100 83 89 0.13816568915789901 2 989 9 1277 1 4445
6707 -1.0678319763617965 -0.0082735443143877457 11.046858032371054 167 168 163 0.2674324488596031 8 976 9 1251 11 1502
6706 -0.26471440088899145 0.016664942723668058 11.178991967017819 144 130 122 0.49145367905599951 3 1011 9 1235 7 4425
6705 -1.0098072884256002 -0.064474273491944928 11.082409735215226 159 144 132 0.54128965551818586 3 981 9 1197 1 1190 7 1336 11 1414
6704 -5.5474977471734981 -0.35663083810619783 10.439464774721696 188 190 181 0.53001677899571886 8 875 9 1181 1 1296 7 1502 11 2075
6703 -5.5474977471734981 -0.35663083810619783 10.439464774721696 188 190 181 0.53001677899571886 8 874 9 1180 1 1295 7 1501 11 2076
6702 -0.21172028136576948 -0.14006316446032907 11.21215954759292 115 97 103 0.23306050325340005 8 886 9 1129 1 1048 7 4355
6701 1.8323659699018275 -0.021296102317701765 9.9809542089710845 168 174 144 0.39765773933987969 8 944 9 1096 1 839
6700 -5.4597524619523847 -0.54231607024260109 10.350498454115812 156 157 149 0.72892629923312247 8 754 9 1055 1 4450 7 4476 11 1913
6699 1.0122659460566568 -0.14055769329088438 9.8832822137236871 108 89 86 0.44933802378751814 8 861 9 1027 1 4279 7 4176
6698 -2.4235820850154983 -0.39038916323172945 10.558890707273569 169 169 150 0.3722523221044467 8 787 9 1025 1 4367
6697 -1.8290299963878796 -0.35797271385696033 10.687273966231752 151 141 132 0.10187447566837728 8 801 9 1020 10 1150
6696 1.1601766629746537 -0.13756415960964216 9.9071732950176816 111 101 99 0.72811201232149825 8 862 9 1019 1 4269 7 4160
6695 -1.6667204583038586 -0.35894947133762301 10.961619226379833 159 150 128 0.77968375392577371 8 790 9 1010 1 4345 7 1175 11 5370
6694 -3.1807091282605673 -0.4688883739022543 10.44523869079617 186 190 183 0.53057833595637338 8 738 9 986 1 1020 7 1237 11 1516
6693 -5.3891304176231438 -0.62326686714016377 9.9295839146129943 169 166 158 0.30020679050022531 8 691 9 960 1 4405 7 4418
6692 -2.6536862650260087 -0.45504656122216397 10.51228740933205 183 180 163 0.36258158607599633 8 737 9 937 1 975 7 1196
6691 1.0723803048509306 -0.17906857990268135 9.899218336577368 146 128 115 0.46459061065001911 8 844 9 926 1 4242
6690 -5.3601425990021347 -0.66477455542751884 9.7308563671977737 174 173 169 0.38178617606186455 8 654 9 868 11 1800
6689 1.8303831829625783 -0.15603568683726343 10.027198105246562 141 124 110 0.3014345637863593 8 841 9 865 1 4192
6688 -2.2537845831176613 -0.49893358656746772 10.562264677243 206 195 172 0.74666541503829864 2 670 9 833 1 847 7 1118 11 1242
6687 -5.9746906617579354 -0.7823439016106235 8.8728089556730048 182 182 170 0.33787159373436454 8 581 9 784 1 981
6686 -0.88120354815181923 -0.4849698386546063 11.206250660271863 53 71 101 0.13244672672156413 2 645 9 764 1 709
6685 -2.0316118697059289 -0.57715527656158172 10.733006002798614 159 193 227 0.59114647199742787 8 625 9 751 1 728 7 1039
6684 -2.8518232315353913 -0.63485295940224584 10.614954786985161 156 162 166 0.6680837674473864 4 642 9 749 7 1096
6683 -0.042586961966543768 -0.46680882614809255 11.315410462805069 149 158 162 0.45969226225967219 2 635 9 732 1 640
6682 -5.2468666166133593 -0.79802426615067712 9.0593424531751658 176 174 165 0.91776560662456508 8 560 9 727 1 4305 11 5638
6681 -0.40206025793023659 -0.55190662119134193 11.289130000714762 159 164 167 0.25054230574925729 8 598 9 701 1 4165
6680 -4.2424886696886759 -0.86812928581989501 10.770709149730557 178 180 167 0.81937859559233783 2 507 9 683 1 714 7 1081
6679 -2.2610987142786527 -0.7183541697951783 10.720576268639967 174 180 178 0.81103151162197806 8 556 9 670 1 629 7 4161 11 1042
6678 1.1093672097388669 -0.44530660559444035 9.9595886490636261 156 131 111 0.27547147608504458 8 604 9 643 1 4097
6677 -4.281251045209105 -0.94284070541464193 10.766746087051418 180 181 176 0.28946057898502414 8 472 9 640 1 660
6676 -2.3649226054766022 -0.85343509757070035 10.746521170444167 107 131 162 0.6323399416546992 2 467 9 587 1 547
6675 -1.5399276372504087 -0.84375727366034625 11.157558840203105 142 131 121 0.32349424291054291 8 458 9 571 7 840
6674 -5.4358017498284026 -1.1213268914515395 9.7487054521265808 135 137 138 0.29933605287002329 8 403 9 562 1 597 11 1386
6673 -0.78971879480843032 -0.81760419123972605 11.265506728683967 141 129 114 0.30641981231622928 8 452 9 545 1 481 7 800
6672 -0.47547908163842634 -0.8301757745403866 11.319036672332651 169 172 156 0.33053085671545995 2 457 9 509 1 448
6671 -5.9003344981519286 -1.1990931252352266 9.1184496245925253 137 136 142 0.54422821175389158 8 383 9 503 1 4152
6670 1.8046166957789178 -0.61226656124358969 10.004079244767421 183 174 131 0.87719276622301945 8 470 9 433 1 3939 2 513
6669 -2.4100050485187756 -1.1133570801294632 10.752841925443681 172 181 178 0.51885543546381763 8 371 9 410 7 780
6668 -1.8415586748026112 -1.1314576981354729 11.623631530718875 128 153 184 0.52748418345550652 8 374 9 406 1 4032
6667 -1.1783514965356328 -1.1020131446519381 11.722810805474717 135 161 196 0.32175491108229498 2 369 9 385 1 387 7 712
6666 -1.055578967552439 -1.1965043967860653 11.770473777599195 104 128 166 0.37317888049323567 8 345 9 365 1 3946
6665 -0.31338324450098154 -1.204680429647786 11.890787423801896 48 63 85 0.21810164046253833 8 326 9 339 1 3916
6664 -5.7068229191879718 -1.8372042580667531 11.62551411329158 157 171 181 0.67621685264074083 8 266 9 326 1 363
6663 -1.9210034304904289 -1.7032689487856112 12.094644896505692 156 158 157 0.45816118857661425 2 220 9 265 1 3884 7 3909
6662 1.005931571987623 -1.2427709836929672 10.386825284837286 64 80 119 0.4293377539995446 8 272 9 229 1 177 7 367
6661 1.4379340494770179 -1.1897729114661721 10.143952056974131 118 108 92 0.40087540976151792 8 273 9 218 1 3817
6660 -2.7318012527618682 -1.9095267991139515 11.811862260882654 103 123 150 0.43401107242682385 8 221 9 214 1 235 7 554
6659 -4.0672056525143621 -2.1150247714889918 12.143563173204985 110 132 160 0.18687712367879061 8 197 9 213 1 257
6658 -3.3294506207724153 -2.0495938810709564 11.955960298881473 114 113 134 0.76884266361262321 2 157 9 197 7 563
6657 -3.3294506207724153 -2.0495938810709564 11.955960298881473 114 113 134 0.76884266361262321 2 156 9 196 7 562
6656 1.8072875869723459 -1.2685848411507483 10.54692192607655 139 171 160 0.3558411509467625 8 257 9 191 1 3790
6655 -2.7835009679268206 -2.0110311511331189 11.905062007420611 111 129 153 0.53028143771863523 2 158 9 182 1 220
6654 -1.0684771325241029 -1.9085074887447098 12.467502681262363 114 143 173 0.55685171941253808 8 203 9 173 1 190 7 456
6653 -6.2202914754420355 -2.4532864716974054 11.488390126041002 165 140 205 0.77030689983868994 8 122 9 168 1 3868 11 621
6652 -1.4165689680110622 -2.0017144336456623 12.501450079734267 115 146 174 0.47238202260031431 8 180 9 164 1 173
6651 -1.922008932318116 -2.0197405053430022 12.154791563784299 172 178 176 0.76687797151359771 3 202 9 161 7 467
6650 -2.803322097918282 -2.1737736912381642 12.038496222080198 105 113 134 0.41220936695090077 5 105 8 145 9 139 1 3833 7 3837
6649 -2.4895000160778826 -2.2098389186800875 12.118285222532844 106 114 121 0.46686062371732651 8 123 9 114 1 152 7 3809
6648 -3.2633224091429609 -2.3240574685986055 12.011370076083001 198 202 201 0.55802721834337266 8 89 9 103 1 157
6647 -6.1754553592261674 -2.5413615807852952 10.062627214791135 255 250 255 0.58786899313159946 8 33 9 78 1 187
6646 1.4054036883633874 -1.8623447807406506 10.903616098599681 62 84 123 0.44901645628995118 2 102 9 29 1 20 8 69
6645 -2.8038302337776257 -2.937708215195129 12.519226434439117 83 80 137 0.50364303118820353 8 3700 9 11 1 3733 7 263
6644 -2.9637774805537918 2.106106258651117 9.5477415993547012 56 63 91 0.83086580224971973 3 9813 8 10256 2 9294
6643 1.8133241362294172 -0.59754323867814696 10.062752843808951 134 131 111 0.23195235072208056 8 9528 2 8592
6642 -8.1330150831924204 2.2088831607878729 8.9813416481313961 236 234 203 0.47282104139036285 8 8334 2 7472
6641 -4.4148118812649786 0.51417820959498162 10.551132451308035 0 0 0 0.34835355752945757 3 5849 5 5769
6640 -2.8153138089986296 -3.0025049322750856 12.537102539413876 60 62 83 1.3710797587208656 3 8714 4 9590 2 7605 8 7313 5 6576 4 5792 9 6749 10 8098
6639 -0.70507198862046472 -1.831543448914821 12.459405403490345 41 56 80 2.0691654880242392 2 9643 5 9538 4 10489 6 10196 10 11077
6638 -5.839617977161403 -1.1161803481504544 9.1470156694966747 92 111 136 0.96011703848817653 8 7439 3 6731 4 7468 2 6571 5 5212 6 3660
